  2.45076704 -.119861864  5.23808146
  2.37282348  .249393806  4.93545771
  2.17590833 -.542514563  4.14745522
  1.75240469  .233820722  5.40900469
  2.55010796 -.381116033  4.19117832
  1.73188269 -.5064376  5.2108264
  2.46395493 -.272022814  5.15082693
  2.44164491  .1236884  3.76462436
  2.27319932 -.194881737  3.99996114
  2.02878928 -.698567867  4.43857145
  2.43227601  .0679396242  5.21806717
  2.43090391  .101885058  5.19398069
  2.25565958  .0827112868  4.13995314
  2.52697778 -.472911328  4.63793373
  2.04047489 -.694634438  4.41937017
  2.21999407  .594845593  4.11233568
  2.27643347 -.0715394393  4.02556896
  2.28097463  .267952919  4.64693737
  2.26996493 -.0356590785  4.04552937
  1.7218529  .129466772  5.44329071
  2.54762197 -.449215174  4.39172411
  2.4274087  .135713205  5.16656256
  2.37057257  .24915722  4.93077564
  1.94621694  .602454782  5.01733828
  2.24714112  .11383526  4.17874527
  2.07689309 -.66282177  4.33463812
  2.44489741  .106746525  3.76839828
  2.30796504  .26704067  4.74257326
  2.21999407  .594845593  4.11233568
  2.12794232  .675023139  4.43871593
  2.36744332  .31167984  3.79187632
  2.2527771  .0747323111  4.13415861
  1.68954253 -.186527014  5.42409277
  2.54747868 -.339906067  4.11294842
  2.40293169  .210229278  5.05709505
  2.05150771  .678471327  4.71957207
  2.01599669  .662826002  4.81158972
  2.25016165  .252396077  4.52164888
  1.84160018  .462577999  5.24539709
  2.24620819  .547566473  4.02066708
  2.24384189  .235837296  4.44721603
  2.13505888 -.60818702  4.22846317
  1.7544136 -.573431373  5.12676525
  1.88347578  .518795669  5.17010546
  2.44606018 -.0597798936  5.24715948
  1.7227788  .120468423  5.44414854
  2.2694757 -.0356513895  4.04465723
  2.27562833 -.119260639  4.01132822
  2.23706675  .160354927  4.25386143
  2.20724726 -.48125717  4.09235907
  2.4772222 -.334934354  5.08018732
  1.89978218 -.717868805  4.73841858
  2.46822047 -.303059578  5.12127256
  2.26936626  .51558733  3.96661401
  2.28777814  .477941751  3.92063665
  1.90784943  .561510623  5.10091591
  2.10229754  .683077931  4.53216887
  2.54425216 -.444042832  4.38457203
  1.69309247 -.100588329  5.44547796
  2.26794219  .506945133  3.96100783
  1.96427763  .61933434  4.9723196
  2.23177028  .199180171  4.34116173
  2.53101039 -.473666012  4.62627459
  1.90863037 -.721212327  4.71496439
  1.99218464  .647300065  4.88731813
  2.08179712  .684460044  4.61513996
  2.27643347 -.0715394393  4.02556896
  2.43850231  .0383070521  5.23003054
  2.38252282  .237807393  4.97511673
  2.46063375 -.206625238  5.20032072
  1.79487944  .352141351  5.34235477
  2.23944616  .223526433  4.39800739
  2.12240601  .681429982  4.47091293
  1.70651162 -.428646535  5.28931952
  2.48319459 -.0216711387  3.80935836
  2.27121472 -.214692697  3.99961352
  2.00352311  .654852271  4.84767103
  2.42883825  .110292889  5.19035816
  2.02878928 -.698567867  4.43857145
  2.3793633  .233298615  4.98992968
  2.40743446  .181015924  5.1073432
  2.33373761  .265895814  4.81582832
  2.1803484  .641711414  4.25661516
  1.69876707 -.0237206966  5.45464373
  1.82516515  .418018639  5.28755903
  2.37551975  .283263594  3.78432178
  1.6850276 -.159281775  5.43411636
  2.38309455  .267306894  3.77870512
  2.34131646  .266759306  4.83146763
  2.35586023  .260089397  4.88118029
  2.35424042  .330866903  3.80459809
  2.37551975  .283263594  3.78432178
  2.27643347 -.0715394393  4.02556896
  1.6974715 -.0503804944  5.45235252
  2.54696202 -.348889679  4.13007736
  2.43147779  .0721645802  5.21661711
  2.36905766  .248998001  4.92762423
  2.44560003 -.0256115589  5.24489355
  2.26939273  .262577683  4.58206367
  2.13490629  .673133314  4.41234636
  2.54934859 -.403776854  4.24520779
  2.46935272 -.298823804  5.12253189
  2.2392745  .152658433  4.23906994
  2.39941669  .231037557  3.76921654
  2.45093656 -.119870156  5.23844385
  2.3569243  .256043881  4.90421629
  2.27643347 -.0715394393  4.02556896
  2.35406756  .339226335  3.80620956
  2.38836884  .229973763  5.00796652
  2.5054934 -.446296751  4.82689285
  2.2419734  .144981921  4.22534561
  2.4454298 -.0213415604  5.24444056
  2.43302441  .0637109876  5.21942616
  2.34628701  .263178259  4.86228991
  2.45407844 -.197451025  5.2084198
  2.25680971  .0472734235  4.10602236
  2.43090391  .101885058  5.19398069
  2.24980974  .102163263  4.1652236
  2.28374696  .268278599  4.65258503
  2.15834689 -.574291408  4.18286896
  2.24898219 -.356203526  4.02461195
  2.27810383 -.151310652  4.00274086
  2.46935272 -.298823804  5.12253189
  2.28238273  .268118352  4.64980602
  2.39941669  .231037557  3.76921654
  1.68953395 -.328412414  5.36077404
  2.27721572 -.159238219  4.00213289
  2.07689309 -.66282177  4.33463812
  1.74237907 -.536025703  5.17659473
  1.77950871 -.612733722  5.06066656
  2.2500155  .540180922  4.00787926
  2.40913558  .193834454  5.09002304
  2.18251491  .638211966  4.24083185
  2.47670817 -.348078609  5.06048679
  1.91846883  .571920395  5.08212709
  2.23466206  .203370169  4.34747076
  1.80897582 -.658413827  4.96313286
  2.48997021 -.389918923  4.98937607
  2.24359632  .121508829  4.19042158
  2.32505274  .269017786  4.77768612
  2.1803484  .641711414  4.25661516
  2.26923084 -.035647545  4.04422092
  2.25923181  .0552144349  4.11075449
  2.23743081  .21544008  4.37370491
  2.2782464  .267632425  4.64137936
  2.09465837 -.652412891  4.30578899
  2.40743446  .181015924  5.1073432
  1.90784943  .561510623  5.10091591
  1.76071119 -.589125514  5.10112143
  2.46029186 -.206596524  5.19959784
  2.32999206  .265469074  4.80809879
  1.69912922 -.0118621504  5.45540762
  2.27643347 -.0715394393  4.02556896
  2.42056274  .16926223  3.76515007
  2.46541524 -.246081218  5.17128801
  2.27598095 -.115296468  4.01158857
  2.50045848 -.0785796642  3.8375895
  2.24008584  .164501622  4.26014185
  2.2768693 -.111356899  4.01280594
  2.35413122  .335042536  3.80536127
  2.20533276  .615740001  4.16491032
  2.46726012 -.241917297  5.17426443
  1.70893729  .029829612  5.45405579
  2.41387367  .160329327  5.14104652
  2.34778714  .355069458  3.81476927
  2.02235484  .664916456  4.804039
  2.1647141  .653565705  4.3069973
  1.90944779 -.721521139  4.71698332
  2.36905766  .248998001  4.92762423
  2.43090391  .101885058  5.19398069
  2.32362723  .401360124  3.847965
  2.52094173 -.171860605  3.90582752
  2.53099418 -.473662972  4.58848
  2.47950625 -.00865537114  3.80357814
  2.24465156  .137288764  4.21171474
  2.39024544  .259663731  3.77400804
  1.92029631 -.721792102  4.69562578
  1.75376964 -.573220909  5.12488317
  2.41011167  .189679921  5.09137821
  1.723773 -.487778366  5.23241949
  2.3728354  .245208696  4.95664454
  2.07763338  .683091104  4.62673283
  2.00431895  .655112445  4.84959698
  2.43302441  .0637109876  5.21942616
  2.19456148 -.502621889  4.1122365
  2.500175 -.427362978  4.89328337
  1.87061965  .50823611  5.18457413
  2.48891735 -.0434447192  3.81857324
  2.46103811  .0601464771  3.77635241
  2.26536989  .258106291  4.57302523
  2.50898123 -.455959052  4.79599476
  1.69866371 -.0266844556  5.45445299
  2.36160851  .256552756  4.89215469
  2.48319459 -.0216711387  3.80935836
  2.50774336 -.446697533  4.8312273
  2.25734997  .0512264371  4.107162
  1.99563015  .648419559  4.87226629
  2.24046159  .129184201  4.20298147
  2.2337451  .183647245  4.30546188
  2.54907513 -.358249098  4.15164089
