  .709072471  .00297017302 -.705129385
  .152557448 -.294313103 -.943454325
  .768470526 -.323508829 -.552082479
  .638484657  .0730848163  .766156614
  .712956905  .0965222716 -.694532871
  .872987866  .0547707751 -.4846569
  .971417785 -.0132252788  .237007663
  .597525656  .035918206  .801044941
  .553916752 -.200405732 -.808092654
  .756686509 -.281559527 -.590042174
  .576376498 -.0579364449 -.815127909
  .131218895 -.194101229 -.972165763
  .447652251 -.245793775 -.859763265
  .981044412  .0347731337 -.190637589
  .9123137 -.312710613  .264378101
  .876474023  .141957819  .460044801
  .295334548 -.144299611 -.944433749
  .497988552  .0464600027  .865938127
  .808349013 -.00917082094  .588632166
  .164764702  .00604164694  .986314416
  .363301784 -.0815405101  .928096414
  .540002763  .00989717431  .841605067
  .897376239 -.0142537728  .441035956
  .0201352872  .292346776 -.956100404
  .770533621 -.0341812 -.636482179
  .821901262 -.241431177  .515935361
  .738400996  .070319593  .67068553
  .74889189 -.135691702 -.648651421
  .876474023  .141957819  .460044801
  .569294512  .203164592 -.796635389
  .479669809  .0589810312  .875464499
  .520813346 -.0867805257 -.84924829
  .857439041  .0214045849  .514140189
  .717858791  .104980193 -.688228071
  .193215385 -.232151359 -.953296185
  .518562734  .217238575 -.826982498
  .749209225  .14264828  .646789789
  .996378243 -.0130433058 -.0840256587
  .734177947  .221381783 -.641851127
  .771561742  .135491818  .62155807
  .850171626 -.043216601 -.524728954
  .568121254 -.139333695 -.811063766
  .985344827 -.116448857  .124640629
  .587960303  .113861978  .800835907
  .945904315  .00462259725 -.324412763
  .406123102  .269214928 -.873262465
  .945899546 -.0237780567  .323587149
  .606512427 -.023299858  .794732511
  .234916329  .0383427367  .971259058
  .864198387 -.174880892  .471781522
  .626244724  .0212123692 -.779337943
  .224154815 -.112689115  .968016446
  .522733212  .0081204921 -.852457643
  .982802331  .154781535  .100708961
  .983580589  .155959845  .0908063501
  .675977826  .222119495 -.702649891
  .333261788  .122154385  .934887648
  .483266264 -.0862568915  .871213794
  .0671433657 -.0296837706  .997301698
  .814186335  .136248067  .564390838
  .213237777  .0854185671  .973259151
  .269406885 -.302588254 -.91425395
  .746683002  .056798704 -.662750661
  .95536387 -.292448759  .0418757051
  .210278451  .259672254 -.94252497
  .945106506  .154936522  .287694842
  .374191701 -.167384043 -.912120163
  .745101035 -.0270611774 -.6664024
  .738158107 -.113745295 -.664969623
  .0666867048 -.110591441 -.991626143
  .146718606  .033064466  .988625526
  .452591032 -.201222613 -.868717909
  .0236229841  .020966094  .99950105
  .173835844 -.0680905208  .982417822
  .986199915  .149324775 -.0714974627
  .656311393 -.0493483022  .752874553
  .985232413  .165755346  .0429219007
  .572184324 -.0732985064 -.816842973
  .715442181 -.210294724  .666272163
  .680421114 -.121936738 -.722605348
  .751033187  .000917560537  .660263836
  .97628063 -.0686106533 -.205350161
  .974241376  .17090854 -.147118866
  .388474703  .0021696745  .921456814
  .621789336  .243676558 -.744311571
  .912880003  .145566091  .381393045
  .534578443 -.0152122555  .844981909
  .551958382  .0606442653  .831663489
  .0820369571  .0572084896  .994985998
  .693631887  .0142872883  .720187962
  .95930922  .155030563  .235990226
  .920383155  .169918403 -.352168411
  .94696486 -.0347236246  .319455534
  .934451461  .078796573  .347263038
  .525293648  .097167775 -.845354915
  .974675417 -.0129293427  .223250195
  .0611127317 -.314397663 -.94732219
  .587878168 -.0297806263 -.808401108
  .494087934 -.221016213 -.840850115
  .383072734  .128918216  .914677739
  .998053193  .0568483248  .0256536026
  .47346887  .00206591072 -.880808115
  .607386649 -.0501497276 -.792821825
  .301107973  .0257081855  .953243434
  .402517319 -.0264529344  .915030062
  .850327134 -.00653017173  .526213944
  .467180133 -.161775634 -.869236112
  .707453072  .171281621 -.685691416
  .322889924  .0453792177  .945347965
  .487258583 -.0846021399  .869149864
  .406420439 -.289682865 -.866548479
  .540377259 -.0130177978  .841322124
  .175478086  .0162168313  .984349787
  .935525894 -.0205766056  .352658421
  .806938231 -.0294480547  .589901268
  .821570694 -.0596116036 -.566981494
  .0192802493 -.234010071 -.972042978
  .432314008 -.250603676 -.86619997
  .377441823  .0601186007  .924079776
  .938146591 -.320833534 -.13018015
  .466645747 -.170952827 -.867765427
  .467824847 -.190915778 -.862954855
  .757279873 -.0464498885  .651436567
  .120043963  .0655044615  .990605175
  .0842418373  .013026271  .996360183
  .227171928 -.0559249148  .972247541
  .405277133 -.18777959 -.894700646
  .270096689 -.111932948  .956304789
  .305273443 -.093564555  .947656989
  .96793133 -.100538217 -.230219573
  .831124604  .178936452 -.526510835
  .897029102 -.0631983876 -.437429726
  .892128408  .183614522 -.412786424
  .43409583  .00553107215 -.9008497
  .519354463  .241406932 -.819752216
  .304516822  .0515598319  .951110423
  .703996897  .0562712662 -.707970262
  .683355391  .0305529442 -.729446352
  .318555266  .026078064  .947545528
  .998512149 -.0448182859  .0310618542
  .958508134  .152670324  .240736231
  .987617373 -.0576374643 -.145910397
  .899535835  .00628004689  .436801791
  .332518697  .0533203892  .941588163
  .24887009 -.349935472 -.903110623
  .810211241 -.344248086 -.474395454
  .751033187  .000917560537  .660263836
  .0484416522  .0294529833  .998391688
  .730195582  .0901742503 -.677261353
  .991505742 -.00380712748  .130007133
  .946461916 -.0803084597 -.312666565
  .162470132 -.0129008107  .986629128
  .15161173 -.019126134  .988255084
  .729849577  .0819947273  .678672612
  .75482446 -.0394265726  .65474087
  .655885816 -.0239356123  .754480541
  .0834834278 -.00185077009  .996507466
  .853997588 -.00357723748 -.520264626
  .491747618 -.173943803 -.853186905
  .544298291  .075140357  .835519791
  .951122105  .1735342 -.255445838
  .37876451 -.0229008254 -.925209701
  .750989616  .0515923947  .658295393
  .0735875294 -.244969308 -.966734171
  .975777268  .166617379 -.141765192
  .354623079  .238206968 -.904157043
  .430740148  .132183865  .89274317
  .540158153 -.166071162  .825014889
  .740073919 -.121589683 -.661442757
  .0192802493 -.234010071 -.972042978
  .89718461  .170984834 -.40721482
  .990597606  .113389783  .0765449926
 -.108884864 -.0351478569 -.99343282
  .434744149  .138660967 -.889814973
  .679343045  .0316805206  .733136714
  .942922354  .151200488  .296708286
  .325754076 -.128120944  .936733305
  .756376863  .0835047811 -.64878422
  .123256452 -.247106209 -.961117268
  .449105531  .203062072 -.870097697
  .281736106 -.233901829 -.93054539
  .803922176  .146967247  .576289654
  .693624794  .210607082 -.688860893
  .175478086  .0162168313  .984349787
  .950501502 -.23364149  .204837754
  .67071718 -.0731000975  .738102198
  .106591277  .0443696678  .993312478
  .261063218 -.0153728416  .965199292
  .261239886  .138552994 -.955278397
  .273276031 -.356268972 -.893528163
  .870963693 -.047169704  .489078015
  .461852551  .00685222354  .886930227
  .16563791  .0631185099  .984164715
  .986199915  .149324775 -.0714974627
  .946186125 -.0277515799  .322430849
  .63237077 -.0832531899 -.770179272
  .977027237  .160344556  .140382886
  .396516502 -.128300652 -.90901792
  .439829111  .0418859161  .897104204
  .0735214576 -.0117630688  .997224271
